97 129 20
95.1737 133.455 20
94.2475 138.362 20
93.2237 143.256 20
92.4829 148.199 20
92.1388 153.184 20
92.3892 158.173 20
93.3397 163.073 20
95.0393 167.769 20
97.5331 172.083 20
101.11 175.526 20
105.847 176.869 20
110.773 176.248 20
115.454 174.497 20
120.049 172.527 20
124.645 170.556 20
129.214 168.528 20
133.618 166.167 20
137.654 163.229 20
141.296 159.808 20
144.57 156.032 20
147.587 152.045 20
150.602 148.059 20
154.118 144.527 20
158.541 142.265 20
163.452 141.5 20
168.435 141.827 20
173.339 142.781 20
178.162 144.099 20
182.939 145.574 20
187.673 147.183 20
192.238 149.214 20
196.638 151.588 20
200.979 154.068 20
205.247 156.671 20
209.395 159.463 20
213.542 162.256 20
217.714 165.012 20
221.846 167.827 20
226.105 170.439 20
230.785 172.145 20
235.729 172.811 20
240.717 172.545 20
245.647 171.728 20
250.519 170.603 20
255.413 169.58 20
260.314 168.595 20
265.003 166.932 20
268.729 163.688 20
270.485 159.074 20
270.802 154.096 20
270.273 149.128 20
269.147 144.263 20
266.969 139.784 20
263.623 136.115 20
259.35 133.542 20
254.761 131.562 20
250.144 129.644 20
245.619 127.517 20
241.213 125.157 20
237.023 122.434 20
233.106 119.331 20
229.553 115.816 20
226.322 112.004 20
223.422 107.932 20
220.577 103.82 20
217.332 100.026 20
213.46 96.884 20
209.097 94.4545 20
204.432 92.6711 20
199.572 91.5235 20
194.593 91.104 20
189.594 91.0782 20
184.617 91.5199 20
179.744 92.6033 20
175.093 94.4264 20
170.595 96.6075 20
166.028 98.6375 20
161.289 100.222 20
156.424 101.368 20
151.477 102.084 20
146.548 102.914 20
141.821 104.523 20
137.348 106.746 20
133.143 109.448 20
129.146 112.45 20
125.247 115.58 20
121.264 118.601 20
117.072 121.323 20
112.696 123.739 20
108.196 125.916 20
103.489 127.587 20
98.6235 128.724 20
97.1343 131.045 37.631
97.1343 131.045 2.36903
97.1343 166.045 36.4323
97.1343 166.045 3.5677
97.1343 171.045 28.9674
97.1343 171.045 11.0326
107.134 176.045 32.7356
107.134 176.045 7.26441
112.134 126.045 33.8411
112.134 126.045 6.15887
117.134 171.045 37.0713
117.134 171.045 2.92874
122.134 121.045 34.6338
122.134 121.045 5.36617
122.134 171.045 32.8394
122.134 171.045 7.16056
127.134 116.045 31.6688
127.134 116.045 8.33115
127.134 166.045 37.2354
127.134 166.045 2.76457
132.134 111.045 30.8026
132.134 111.045 9.19737
132.134 166.045 30.3126
132.134 166.045 9.68735
137.134 111.045 37.137
137.134 111.045 2.86299
137.134 161.045 34.2104
137.134 161.045 5.78964
142.134 106.045 29.9399
142.134 106.045 10.0601
142.134 156.045 35.1905
142.134 156.045 4.80954
147.134 106.045 35.8126
147.134 106.045 4.18737
147.134 151.045 29.3911
147.134 151.045 10.6089
152.134 146.045 35.5236
152.134 146.045 4.47642
157.134 141.045 34.9432
157.134 141.045 5.05676
162.134 101.045 27.9115
162.134 101.045 12.0885
162.134 141.045 32.009
162.134 141.045 7.99099
167.134 101.045 34.2521
167.134 101.045 5.74793
167.134 141.045 31.8629
167.134 141.045 8.13709
172.134 96.0453 29.5448
172.134 96.0453 10.4552
172.134 141.045 34.2467
172.134 141.045 5.75335
177.134 96.0453 33.297
177.134 96.0453 6.70296
177.134 141.045 37.3392
177.134 141.045 2.66082
182.134 96.0453 36.9674
182.134 96.0453 3.03264
187.134 146.045 29.1593
187.134 146.045 10.8407
192.134 146.045 36.7304
192.134 146.045 3.26958
197.134 151.045 25.5791
197.134 151.045 14.4209
202.134 96.0453 36.6077
202.134 96.0453 3.3923
202.134 151.045 36.8888
202.134 151.045 3.11116
207.134 96.0453 32.9468
207.134 96.0453 7.05322
207.134 156.045 32.1787
207.134 156.045 7.82133
212.134 101.045 37.3587
212.134 101.045 2.6413
212.134 161.045 30.9045
212.134 161.045 9.09554
217.134 101.045 26.95
217.134 101.045 13.05
217.134 106.045 37.3713
217.134 106.045 2.62874
217.134 161.045 36.5897
217.134 161.045 3.41026
222.134 111.045 35.343
222.134 111.045 4.65697
222.134 166.045 31.5647
222.134 166.045 8.4353
227.134 116.045 33.1927
227.134 116.045 6.80725
232.134 121.045 32.1131
232.134 121.045 7.88692
232.134 171.045 31.1479
232.134 171.045 8.85207
237.134 126.045 36.6833
237.134 126.045 3.31665
237.134 171.045 33.0148
237.134 171.045 6.98517
242.134 126.045 28.7192
242.134 126.045 11.2808
242.134 171.045 31.9989
242.134 171.045 8.00115
247.134 131.045 36.1036
247.134 131.045 3.89638
247.134 171.045 30.1317
247.134 171.045 9.86826
252.134 131.045 32.5699
252.134 131.045 7.43006
257.134 136.045 37.8111
257.134 136.045 2.18886
262.134 136.045 30.7906
262.134 136.045 9.20942
262.134 166.045 36.4813
262.134 166.045 3.51869
267.134 141.045 29.5269
267.134 141.045 10.4731
267.134 146.045 35.926
267.134 146.045 4.07396
